            1
           12           8           2
  -4.9638647672534120E-003  7.7830287051790917E-002  0.1914307276503149     
   0.3416711601057010       0.5282319180243752       0.7416243804638146     
   0.9637816830893031        1.175109178306950        1.360408190202643     
    1.511782696848701        1.628881531372012        1.715159341698438     
   0.4054269459839861       0.4746117317268877       0.5689741615909525     
   0.6922059487873029       0.8443020251326159        1.017547209169420     
    1.197684806101514        1.368863782183353        1.518916171164325     
    1.641678386423662        1.736692523819652        1.806648093402849     
   0.8219009837115108       0.8785914140458206       0.9552240318190510     
    1.053394791392185        1.173391797163064        1.309160487617013     
    1.450055600152279        1.583736687985841        1.700873015535183     
    1.796927964793484        1.871325574452721        1.926039624124944     
    1.229943953454699        1.278902341450586        1.345166859276831     
    1.430276324682245        1.534278034347801        1.651904064162666     
    1.773910463629568        1.889622926270014        1.991023669366878     
    2.074211735582731        2.138658378932617        2.186054744974600     
    1.635469580367789        1.677357802734496        1.734149539840475     
    1.807354262378793        1.896765265846671        1.997833521241201     
    2.102597898671868        2.201912407132188        2.288957876977379     
    2.360405788905466        2.415770503251160        2.456488351466832     
    2.041111722452083        2.076063014766657        2.123561697951851     
    2.185094027598967        2.260196214290909        2.345024369750539     
    2.432876377731047        2.516106985021950        2.589072817894785     
    2.649005409833578        2.695461443100461        2.729628124994588     
    2.448169441125003        2.476033160060650        2.514034974122942     
    2.563631936214190        2.624106126087077        2.692334292714619     
    2.762900324004114        2.829690979866994        2.888264509442101     
    2.936426742308307        2.973777476365174        3.001248441013991     
    2.856624459705412        2.877178185381680        2.905382846110709     
    2.942655873506082        2.988030148134582        3.039125815617151     
    3.091852505724542        3.141675288960398        3.185392570661711     
    3.221405601358338        3.249358858528637        3.269919190020740     
  -4.9638676222265588E-003  8.3745868091802497E-002  0.2038633267859447     
   0.3588494906462524       0.5464972157068050       0.7577265897099535     
   0.9768678008347431        1.185450952925891        1.368252669288923     
    1.517215353972853        1.631353737969568        1.715159348835870     
   0.4069499613752345       0.4789273314915734       0.5763786556227180     
   0.7021361215120172       0.8547710100595802        1.026790800470575     
    1.205284726527828        1.375130317866807        1.523910414715500     
    1.645202067108280        1.738280688149124        1.806662733969056     
   0.8219009837115108       0.8784172618686485       0.9549234492200933     
    1.053673265546031        1.173994737058124        1.309852204522048     
    1.450866033902844        1.584995537419674        1.702409943465228     
    1.798202197198737        1.871893970069092        1.926083188159137     
    1.230688783488016        1.279407804762337        1.345440077087022     
    1.430857862262501        1.534949721825585        1.652510120660696     
    1.774563590099442        1.890680544291118        1.992352981101168     
    2.075315814783571        2.139141735833880        2.186076061172693     
    1.636111362849267        1.677742456049272        1.734260671128033     
    1.807584935603831        1.896950574366165        1.997909156043217     
    2.102762248098903        2.202543672780831        2.289946643566475     
    2.361282838844023        2.416168736756054        2.456528767357135     
    2.041383641937983        2.076070576093918        2.123269332132299     
    2.184752204321651        2.259698560054454        2.344402583559015     
    2.432417115996056        2.516209053487702        2.589647376910285     
    2.649606608246409        2.695745085421570        2.729672639159811     
    2.448167276776815        2.475753259688130        2.513420266790522     
    2.562787973580928        2.622982715668966        2.691057420602740     
    2.761844305055554        2.829276009510043        2.888424136272904     
    2.936740480184516        2.973926839849075        3.001271436360872     
    2.856624459705412        2.876872998342090        2.904688586895499     
    2.941527777155736        2.986468779713459        3.037347517393338     
    3.090317964065980        3.140827845882383        3.185192308022649     
    3.221462407338259        3.249386004311595        3.269919190020740     
  -9.8838270901069336E-011 -9.8838270901069336E-011 -9.8838270901069336E-011
  -9.8838270901069323E-011 -9.8838270901069336E-011 -9.8838270901069349E-011
  -9.8838270901069323E-011 -9.8838270901069336E-011 -9.8838270901069336E-011
  -9.8838270901069336E-011 -9.8838270901069336E-011 -9.8838270901069336E-011
   0.5587375636776135       0.5586859475997322       0.5586161474405671     
   0.5585260421874604       0.5584166536522001       0.5582932307234412     
   0.5581649776265026       0.5580426547060195       0.5579351701403252     
   0.5578302466531073       0.5577011828817189       0.5576062361269478     
    1.113120377052353        1.113120377052353        1.113120377052353     
    1.113120377052353        1.113120377052353        1.113120377052353     
    1.113120377052353        1.113120377052353        1.113120377052353     
    1.113086157783365        1.112963331804954        1.112873002200083     
    1.643860338023290        1.644594715483016        1.645491772119356     
    1.646422055801394        1.647467217937287        1.648451807091360     
    1.648986719068693        1.649242703944658        1.649444571155125     
    1.649660251920058        1.649724319941591        1.649771419503800     
    2.176562360724720        2.177643012668004        2.178912192923548     
    2.180094717429981        2.181361689898354        2.182401975349392     
    2.182506861029053        2.182098606768551        2.181693775565668     
    2.181499419163260        2.181241433785149        2.181051668477413     
    2.707871070863813        2.709234715492696        2.710790657655200     
    2.712114958897845        2.713469628920663        2.714414344591591     
    2.713932098560074        2.712709767798590        2.711566581107155     
    2.710854680456205        2.710191741441152        2.709704136513190     
    3.236168055535856        3.237914554895948        3.239892362869209     
    3.241532877456004        3.243187055582102        3.244275149813970     
    3.243453967044936        3.241654246498449        3.239980681689374     
    3.238920983581456        3.237984006504067        3.237294841442513     
    3.761541184539439        3.763790480413869        3.766352042466279     
    3.768518243701715        3.770726278109575        3.772244673025416     
    3.771382599843513        3.769289741874513        3.767335543118671     
    3.766131949699167        3.765078162664196        3.764303075502471     
  -9.8838270901069336E-011 -9.8838270901069323E-011 -9.8838270901069349E-011
  -9.8838270901069336E-011 -9.8838270901069323E-011 -9.8838270901069336E-011
  -9.8838270901069336E-011 -9.8838270901069336E-011 -9.8838270901069336E-011
  -9.8838270901069336E-011 -9.8838270901069336E-011 -9.8838270901069336E-011
   0.5576501094591747       0.5576543077892664       0.5576599899006599     
   0.5576673205911891       0.5576762265536576       0.5576862754238625     
   0.5576967145244661       0.5577066683632430       0.5577154139565398     
   0.5577225609404760       0.5577280616325879       0.5577321075035986     
    1.113120377052353        1.113120377052353        1.113120377052353     
    1.113120377052353        1.113120377052353        1.113120377052353     
    1.113120377052353        1.113120377052353        1.113120377052353     
    1.113120374736239        1.113120366199790        1.113120359922515     
    1.644829135655219        1.645610565893484        1.646519553673953     
    1.647346336574338        1.648265760290651        1.649108201982999     
    1.649494104503272        1.649607904582921        1.649686259869277     
    1.649828464209729        1.649913487084332        1.649976012815330     
    2.177408187112244        2.178637767404685        2.180004687070323     
    2.181076064767541        2.182207881972351        2.183095073876960     
    2.183038270224357        2.182475803184306        2.181938342908810     
    2.181655411431012        2.181388571422155        2.181192352328035     
    2.708225112452051        2.709859017084392        2.711624661835178     
    2.712863919659959        2.714114927137739        2.714941680597110     
    2.714332864962687        2.712989903677658        2.711745095028266     
    2.710962240748034        2.710285960638489        2.709788664770687     
    3.235956813362280        3.238099312581732        3.240404829339901     
    3.241994125452491        3.243585543598379        3.244601449279472     
    3.243699889396841        3.241823635536486        3.240088671691200     
    3.238983401653398        3.238034372571905        3.237336516747911     
    3.760541184539439        3.763323641821142        3.766346497325585     
    3.768515356412420        3.770725953072564        3.772245520179885     
    3.771377903061130        3.769279871736266        3.767328419931621     
    3.766124396990081        3.765074846352100        3.764303075502471     
  -6.0213794398476184E-002 -9.4187955152982505E-002 -0.1358477534358950     
  -0.1784007867548333      -0.2118774201740798      -0.2262217533680911     
  -0.2185390737667772      -0.2013242164006823      -0.1819151218317612     
  -0.1650422481994904      -0.1590526979439817      -0.1565657860334381     
  -4.4131153565128131E-002 -6.1701643675919099E-002 -8.3905407408752311E-002
  -0.1111271707249292      -0.1314453029335554      -0.1384824386159877     
  -0.1300103016671179      -0.1126970939208437      -9.4026265980435619E-002
  -8.0251074532201358E-002 -7.6926225336966580E-002 -7.5439726588920883E-002
  -3.2712788875319143E-002 -3.4889669277392427E-002 -3.9003799276908467E-002
  -5.2658949642290780E-002 -6.1961340334557490E-002 -6.4109114975879539E-002
  -5.7359686595829018E-002 -4.2343824644303078E-002 -2.6516037772931177E-002
  -1.7557638922644621E-002 -1.8221611167790617E-002 -1.8709914630338553E-002
   1.7890173524479743E-002  1.4877035846997524E-002  1.0262058283668038E-002
  -1.4049022335107728E-003 -9.1732176942414326E-003 -1.0525281546527883E-002
  -4.0272457538335707E-003  9.5580388749493747E-003  2.3653726061614144E-002
   3.1650528877781858E-002  3.1445524267667176E-002  3.1294808051334499E-002
   6.8076935562210061E-002  6.4458644688070874E-002  5.9655377990679340E-002
   5.0380321364914799E-002  4.4636304529226706E-002  4.4633021116190774E-002
   5.1454241149869795E-002  6.4156976779770086E-002  7.7002146683187611E-002
   8.4430409547595869E-002  8.4987431496814758E-002  8.5397180163457556E-002
   0.1295555489851175       0.1253036612104620       0.1202734846640118     
   0.1133401725800755       0.1095596812326699       0.1108367372351648     
   0.1179101568385323       0.1296627365932677       0.1411979860812474     
   0.1480091788268492       0.1492907165641724       0.1502333472340192     
   0.2063357911724876       0.2013694318180327       0.1960031462670685     
   0.1912705764277685       0.1892823154927153       0.1916463933492461     
   0.1987711202834774       0.2093819002848616       0.2194388458834556     
   0.2254955466887461       0.2273956705796333       0.2287932748714790     
   0.2951738699977815       0.2895589439006925       0.2839455158709727     
   0.2815290155865781       0.2814729681525772       0.2850819210609087     
   0.2924218664477173       0.3020470811331472       0.3107629381244246     
   0.3161772065443780       0.3187824297957647       0.3206986377472429     
   6.9904423049738984E-002  7.4230488553944290E-002  7.8254136496304694E-002
   7.5986395012555399E-002  5.9736119449723152E-002  3.6317301912423820E-002
   9.5406737651518754E-003 -1.8896142879566896E-002 -4.7097112450249425E-002
  -7.2958129681781267E-002 -9.6010630932620827E-002 -0.1137341068213701     
   6.2562225396336602E-002  6.7981905208705423E-002  7.4425198073349380E-002
   7.9044034963498239E-002  7.4836119927512462E-002  6.4727217683103466E-002
   5.0263958121054442E-002  3.2393139992312650E-002  1.2936491972867246E-002
  -5.0262748596807683E-003 -2.0697150293462335E-002 -3.2606417594796606E-002
   6.1071588432092927E-002  6.6036844747151061E-002  7.2804706480999321E-002
   8.1607260365721593E-002  8.6157926931925283E-002  8.5653547852920439E-002
   7.9654230530268835E-002  6.8678856857497098E-002  5.4741486989151183E-002
   4.2040876549293130E-002  3.1721306671233726E-002  2.4132814755027043E-002
   7.0902734714766436E-002  7.7496887634699224E-002  8.6158640913688550E-002
   9.6671348793744699E-002  0.1042340900908185       0.1079383637327251     
   0.1070211798627904       0.1016078555848535       9.3305270132147081E-002
   8.5433895895055206E-002  7.8923880096926038E-002  7.4136736742110923E-002
   0.1109808610499778       0.1178658315685227       0.1266098594065716     
   0.1364947006037243       0.1442296225507614       0.1489379353833500     
   0.1497734501604574       0.1467474732694832       0.1412903293375506     
   0.1359686311440534       0.1315128115871480       0.1282362367343367     
   0.1724286020041579       0.1790599731848579       0.1871496687789817     
   0.1954551931806554       0.2022069683056867       0.2066159283909107     
   0.2078501802457301       0.2059205315112821       0.2021745534860877     
   0.1984754896192035       0.1953599573867785       0.1930689594225596     
   0.2491599437203156       0.2554577816779937       0.2627855474208236     
   0.2693720142428639       0.2749709965913175       0.2788892965046005     
   0.2803236207998348       0.2793008401625663       0.2770996371881824     
   0.2748872197540448       0.2730072574989321       0.2716248323350906     
   0.3379984932866366       0.3440259413535665       0.3506781030653858     
   0.3556557676674122       0.3602358866830479       0.3638147382445158     
   0.3656063135637941       0.3656402265811374       0.3651155561601899     
   0.3644974821958211       0.3639360404559943       0.3635231929449900     
