           2
           6           2           9   4   4   4
  3.814804367721081E-004  2.106646448373794E-003  3.831812459975481E-003
  5.556978471577167E-003  7.282144483178855E-003  9.007310494780540E-003
 -9.013288654386997E-003 -7.297448377357796E-003 -5.581608100328595E-003
 -3.865767823299393E-003 -2.149927546270191E-003 -4.340872692409903E-004
  3.206751166858782E-004  2.036583125338914E-003  3.752491194125420E-003
  5.468399323045401E-003  7.184307512098861E-003  8.900215761285800E-003
 -8.934277128094040E-003 -7.215346786393483E-003 -5.496416395854307E-003
 -3.777485956476508E-003 -2.058555468260085E-003 -3.396249312050365E-004
  1.990644765134185E-004  1.896456482807847E-003  3.593848667733324E-003
  5.291241031289875E-003  6.988633573477531E-003  8.686026294296316E-003
 -8.776254075508125E-003 -7.051143605950023E-003 -5.326032989133493E-003
 -3.600922225058511E-003 -1.875811313725063E-003 -1.507002551331290E-004
 -4.415680383150093E-005  1.616203211949815E-003  3.276563636255208E-003
  4.936924469084829E-003  6.597285710438825E-003  8.257647360317352E-003
 -8.460207970336295E-003 -6.722737251034370E-003 -4.985266184648815E-003
 -3.247794771179521E-003 -1.510323010626389E-003  2.271490970106861E-004
 -3.019940850652006E-004  1.319087896072604E-003  2.940170196973319E-003
  4.561252817637041E-003  6.182335758063863E-003  7.803419018253881E-003
 -8.125148444269035E-003 -6.374562991571050E-003 -4.623977258234368E-003
 -2.873391244258917E-003 -1.122804949644634E-003  6.277816256085488E-004
 -5.598313662989005E-004  1.021972573183892E-003  2.603776747174168E-003
  4.185581155671977E-003  5.767385798677376E-003  7.349190676190410E-003
 -7.790088918201776E-003 -6.026388729163954E-003 -4.262688327404261E-003
 -2.498987712922664E-003 -7.352868857191186E-004  1.028414154206412E-003
 -8.176686475326001E-004  7.248572432389966E-004  2.267383286790727E-003
  3.809909483122612E-003  5.352435832234675E-003  6.894962334126941E-003
 -7.455029392134518E-003 -5.678214463785256E-003 -3.901399392116766E-003
 -2.124584177129024E-003 -3.477688188220147E-004  1.429046682804274E-003
 -1.075505928766300E-003  4.277419061928496E-004  1.930989815755396E-003
  3.434237799921343E-003  4.937485858690700E-003  6.440733992063470E-003
 -7.119969866067259E-003 -5.330040195406784E-003 -3.540110452329611E-003
 -1.750180636835737E-003  3.974925107484576E-005  1.829679211402137E-003
 -1.333343210000000E-003  1.306265619999997E-004  1.594596333999999E-003
  3.058566106000000E-003  4.522535877999999E-003  5.986505650000000E-003
 -6.784910340000000E-003 -4.981865924000001E-003 -3.178821508000000E-003
 -1.375777092000000E-003  4.272673240000003E-004  2.230311740000000E-003
 -1.581479609012604E-002 -9.986635483801364E-003 -4.158474877476693E-003
  1.669685728847980E-003  7.497846335172654E-003  1.332600694149733E-002
 -1.333517208695412E-002 -7.384361699223518E-003 -1.433551311492921E-003
  4.517259076237677E-003  1.046806946396828E-002  1.641887985169888E-002
 -1.578806104284845E-002 -9.960491067256003E-003 -4.132920887438141E-003
  1.694649496605128E-003  7.522220084873836E-003  1.334979087736797E-002
 -1.334690657269640E-002 -7.401756718935055E-003 -1.456606696258834E-003
  4.488543495332273E-003  1.043369385583828E-002  1.637884438525919E-002
 -1.573459094829326E-002 -9.908202235134169E-003 -4.081812908814465E-003
  1.744577030665945E-003  7.570967583307162E-003  1.339735874910927E-002
 -1.337037554418096E-002 -7.436546757912823E-003 -1.502717465122747E-003
  4.431112334189344E-003  1.036494264002350E-002  1.629877345237981E-002
 -1.562765075918290E-002 -9.803624574779639E-003 -3.979596957401065E-003
  1.844432092953359E-003  7.668462576284158E-003  1.349249449259185E-002
 -1.341731348715008E-002 -7.506126834077953E-003 -1.594939000165131E-003
  4.316250014588747E-003  1.022744021018402E-002  1.613863158662105E-002
 -1.551428416734633E-002 -9.692755439688377E-003 -3.871225563717768E-003
  1.950305460565857E-003  7.771837633162829E-003  1.359337095407348E-002
 -1.346707522972007E-002 -7.579895341480522E-003 -1.692714509459283E-003
  4.194467266343869E-003  1.008164998592917E-002  1.596883364929684E-002
 -1.540091757550974E-002 -9.581886302677069E-003 -3.762854167154442E-003
  2.056178831058336E-003  7.875212691961460E-003  1.369424741555511E-002
 -1.351683697229005E-002 -7.653663849765615E-003 -1.790490020077258E-003
  4.072684516775146E-003  9.935859760791733E-003  1.579903571197263E-002
 -1.528755098367316E-002 -9.471017163733483E-003 -3.654482767692742E-003
  2.162052204449154E-003  7.978587752692284E-003  1.379512387703674E-002
 -1.356659871486003E-002 -7.727432358941574E-003 -1.888265532031562E-003
  3.950901765870077E-003  9.790069534763388E-003  1.562923777464842E-002
 -1.517418439183658E-002 -9.360148022845276E-003 -3.546111365314148E-003
  2.267925580756818E-003  8.081962815367653E-003  1.389600033851837E-002
 -1.361636045743002E-002 -7.801200869016854E-003 -1.986041045334865E-003
  3.829119013615964E-003  9.644279307835653E-003  1.545943983732421E-002
 -1.506081780000000E-002 -9.249278880000000E-003 -3.437739960000000E-003
  2.373798960000000E-003  8.185337880000001E-003  1.399687680000000E-002
 -1.366612220000000E-002 -7.874969379999999E-003 -2.083816560000000E-003
  3.707336259999999E-003  9.498489080000000E-003  1.528964190000000E-002
  9.999997913837433E-003  9.999997168779374E-003  9.999996423721312E-003
  9.999995678663255E-003  9.999994933605193E-003  9.999994188547134E-003
  9.999994188547134E-003  9.999994188547136E-003  9.999994188547134E-003
  9.999994188547134E-003  9.999994188547134E-003  9.999994188547134E-003
  1.499966669910674E-002  1.499948946839970E-002  1.499931223768644E-002
  1.499913500696698E-002  1.499895777624130E-002  1.499878054550941E-002
  1.499942610482095E-002  1.499932917997021E-002  1.499923225511671E-002
  1.499913533026045E-002  1.499903840540145E-002  1.499894148053969E-002
  2.499900426964536E-002  2.499847406771467E-002  2.499794386572819E-002
  2.499741366368591E-002  2.499688346158784E-002  2.499635325943397E-002
  2.499828993736856E-002  2.499799916284946E-002  2.499770838830553E-002
  2.499741761373677E-002  2.499712683914320E-002  2.499683606452481E-002
  4.499767941072259E-002  4.499644326664298E-002  4.499520712225923E-002
  4.499397097757131E-002  4.499273483257926E-002  4.499149868728307E-002
  4.499601760246380E-002  4.499533912874112E-002  4.499466065488290E-002
  4.499398218088915E-002  4.499330370675986E-002  4.499262523249505E-002
  6.619814352857807E-002  6.619715461321787E-002  6.619616569766264E-002
  6.619517678191228E-002  6.619418786596688E-002  6.619319894982645E-002
  6.619681408197103E-002  6.619627130295005E-002  6.619572852384206E-002
  6.619518574464707E-002  6.619464296536506E-002  6.619410018599603E-002
  8.739860764643355E-002  8.739786595984074E-002  8.739712427313794E-002
  8.739638258632522E-002  8.739564089940251E-002  8.739489921236986E-002
  8.739761056147828E-002  8.739720347718022E-002  8.739679639283306E-002
  8.739638930843682E-002  8.739598222399146E-002  8.739557513949703E-002
  0.108599071764289       0.108598577306512       0.108598082848686     
  0.108597588390810       0.108597093932886       0.108596599474913     
  0.108598407040986       0.108598135651432       0.108597864261856     
  0.108597592872259       0.108597321482639       0.108597050092998     
  0.129799535882144       0.129799288653231       0.129799041424306     
  0.129798794195369       0.129798546966419       0.129798299737457     
  0.129799203520493       0.129799067825705       0.129798932130912     
  0.129798796436113       0.129798660741309       0.129798525046499     
  0.151000000000000       0.151000000000000       0.151000000000000     
  0.151000000000000       0.151000000000000       0.151000000000000     
  0.151000000000000       0.151000000000000       0.151000000000000     
  0.151000000000000       0.151000000000000       0.151000000000000  
  -0.033000 -0.011000 0.011000 0.033000 -0.033000 -0.011000 0.011000 0.033000 -0.033000 -0.011000 0.011000 0.033000 -0.033000 -0.011000 0.011000 0.033000 -0.033000 -0.011000 0.011000 0.033000 -0.033000 -0.011000 0.011000 0.033000 -0.033000 -0.011000 0.011000 0.033000 -0.033000 -0.011000 0.011000 0.033000 -0.033000 -0.011000 0.011000 0.033000 -0.033000 -0.011000 0.011000 0.033000 -0.033000 -0.011000 0.011000 0.033000 -0.033000 -0.011000 0.011000 0.033000 -0.033000 -0.011000 0.011000 0.033000 -0.033000 -0.011000 0.011000 0.033000 -0.033000 -0.011000 0.011000 0.033000 -0.033000 -0.011000 0.011000 0.033000 
-0.016000 -0.016000 -0.016000 -0.016000 -0.005333 -0.005333 -0.005333 -0.005333 0.005333 0.005333 0.005333 0.005333 0.016000 0.016000 0.016000 0.016000 -0.016000 -0.016000 -0.016000 -0.016000 -0.005333 -0.005333 -0.005333 -0.005333 0.005333 0.005333 0.005333 0.005333 0.016000 0.016000 0.016000 0.016000 -0.016000 -0.016000 -0.016000 -0.016000 -0.005333 -0.005333 -0.005333 -0.005333 0.005333 0.005333 0.005333 0.005333 0.016000 0.016000 0.016000 0.016000 -0.016000 -0.016000 -0.016000 -0.016000 -0.005333 -0.005333 -0.005333 -0.005333 0.005333 0.005333 0.005333 0.005333 0.016000 0.016000 0.016000 0.016000 
-0.001000 -0.001000 -0.001000 -0.001000 -0.001000 -0.001000 -0.001000 -0.001000 -0.001000 -0.001000 -0.001000 -0.001000 -0.001000 -0.001000 -0.001000 -0.001000 0.004667 0.004667 0.004667 0.004667 0.004667 0.004667 0.004667 0.004667 0.004667 0.004667 0.004667 0.004667 0.004667 0.004667 0.004667 0.004667 0.010333 0.010333 0.010333 0.010333 0.010333 0.010333 0.010333 0.010333 0.010333 0.010333 0.010333 0.010333 0.010333 0.010333 0.010333 0.010333 0.016000 0.016000 0.016000 0.016000 0.016000 0.016000 0.016000 0.016000 0.016000 0.016000 0.016000 0.016000 0.016000 0.016000 0.016000 0.016000    
